    2   15   40
 0.000000E+00 0.000000E+00 0.000000E+00 0.000000E+00 0.000000E+00
 0.000000E+00 0.000000E+00 0.000000E+00 0.000000E+00 0.000000E+00
 0.000000E+00 0.000000E+00 0.000000E+00 0.000000E+00 0.000000E+00
 0.000000E+00 7.317510E-03 1.463502E-02 2.915738E-02 4.754932E-02
 6.948505E-02 9.473260E-02 1.231144E-01 1.544882E-01 1.887360E-01
 2.257576E-01 2.654666E-01 3.077872E-01 3.526518E-01 4.000000E-01
 0.000000E+00 3.658755E-02 7.317510E-02 1.457869E-01 2.377466E-01
 3.474252E-01 4.736630E-01 6.155722E-01 7.724410E-01 9.436798E-01
 1.128788E+00 1.327333E+00 1.538936E+00 1.763259E+00 2.000000E+00
 0.000000E+00 3.584833E-02 7.169666E-02 1.428414E-01 2.329431E-01
 3.404058E-01 4.640931E-01 6.031351E-01 7.568345E-01 9.246136E-01
 1.105982E+00 1.300516E+00 1.507843E+00 1.727634E+00 1.959592E+00
 0.000000E+00 0.000000E+00 0.000000E+00 0.000000E+00 0.000000E+00
 0.000000E+00 0.000000E+00 0.000000E+00 0.000000E+00 0.000000E+00
 0.000000E+00 0.000000E+00 0.000000E+00 0.000000E+00 0.000000E+00
 0.000000E+00 0.000000E+00 0.000000E+00 0.000000E+00 0.000000E+00
 0.000000E+00 0.000000E+00 0.000000E+00 0.000000E+00 0.000000E+00
 0.000000E+00 0.000000E+00 0.000000E+00 0.000000E+00 0.000000E+00
 0.000000E+00 0.000000E+00 0.000000E+00 0.000000E+00 0.000000E+00
 0.000000E+00 0.000000E+00 0.000000E+00 0.000000E+00 0.000000E+00
 0.000000E+00 0.000000E+00 0.000000E+00 0.000000E+00 0.000000E+00
 0.000000E+00 7.317510E-03 1.463502E-02 2.915738E-02 4.754932E-02
 6.948505E-02 9.473260E-02 1.231144E-01 1.544882E-01 1.887360E-01
 2.257576E-01 2.654666E-01 3.077872E-01 3.526518E-01 4.000000E-01
 0.000000E+00 3.658755E-02 7.317510E-02 1.457869E-01 2.377466E-01
 3.474252E-01 4.736630E-01 6.155722E-01 7.724410E-01 9.436798E-01
 1.128788E+00 1.327333E+00 1.538936E+00 1.763259E+00 2.000000E+00
 0.000000E+00 3.584833E-02 7.169666E-02 1.428414E-01 2.329431E-01
 3.404058E-01 4.640931E-01 6.031351E-01 7.568345E-01 9.246136E-01
 1.105982E+00 1.300516E+00 1.507843E+00 1.727634E+00 1.959592E+00
 1.211513E-01 1.211513E-01 1.211513E-01 1.211513E-01 1.211513E-01
 1.211513E-01 1.211513E-01 1.211513E-01 1.211513E-01 1.211513E-01
 1.211513E-01 1.211513E-01 1.211513E-01 1.211513E-01 1.211513E-01
 1.211513E-01 1.211513E-01 1.211513E-01 1.211513E-01 1.211513E-01
 1.211513E-01 1.211513E-01 1.211513E-01 1.211513E-01 1.211513E-01
 1.211513E-01 1.211513E-01 1.211513E-01 1.211513E-01 1.211513E-01
 0.000000E+00 0.000000E+00 0.000000E+00 0.000000E+00 0.000000E+00
 0.000000E+00 0.000000E+00 0.000000E+00 0.000000E+00 0.000000E+00
 0.000000E+00 0.000000E+00 0.000000E+00 0.000000E+00 0.000000E+00
 0.000000E+00 7.317510E-03 1.463502E-02 2.915738E-02 4.754932E-02
 6.948505E-02 9.473260E-02 1.231144E-01 1.544882E-01 1.887360E-01
 2.257576E-01 2.654666E-01 3.077872E-01 3.526518E-01 4.000000E-01
 0.000000E+00 3.658755E-02 7.317510E-02 1.457869E-01 2.377466E-01
 3.474252E-01 4.736630E-01 6.155722E-01 7.724410E-01 9.436798E-01
 1.128788E+00 1.327333E+00 1.538936E+00 1.763259E+00 2.000000E+00
 0.000000E+00 3.584833E-02 7.169666E-02 1.428414E-01 2.329431E-01
 3.404058E-01 4.640931E-01 6.031351E-01 7.568345E-01 9.246136E-01
 1.105982E+00 1.300516E+00 1.507843E+00 1.727634E+00 1.959592E+00
 2.271402E-01 2.271402E-01 2.271402E-01 2.271402E-01 2.271402E-01
 2.271402E-01 2.271402E-01 2.271402E-01 2.271402E-01 2.271402E-01
 2.271402E-01 2.271402E-01 2.271402E-01 2.271402E-01 2.271402E-01
 2.271402E-01 2.271402E-01 2.271402E-01 2.271402E-01 2.271402E-01
 2.271402E-01 2.271402E-01 2.271402E-01 2.271402E-01 2.271402E-01
 2.271402E-01 2.271402E-01 2.271402E-01 2.271402E-01 2.271402E-01
 0.000000E+00 0.000000E+00 0.000000E+00 0.000000E+00 0.000000E+00
 0.000000E+00 0.000000E+00 0.000000E+00 0.000000E+00 0.000000E+00
 0.000000E+00 0.000000E+00 0.000000E+00 0.000000E+00 0.000000E+00
 0.000000E+00 1.014434E-02 2.117850E-02 3.462328E-02 5.191707E-02
 7.307782E-02 9.793309E-02 1.260408E-01 1.571591E-01 1.910690E-01
 2.276859E-01 2.669494E-01 3.089126E-01 3.535304E-01 4.000000E-01
 0.000000E+00 5.072169E-02 1.058925E-01 1.731164E-01 2.595854E-01
 3.653891E-01 4.896654E-01 6.302038E-01 7.857953E-01 9.553449E-01
 1.138430E+00 1.334747E+00 1.544563E+00 1.767652E+00 2.000000E+00
 0.000000E+00 4.969690E-02 1.037530E-01 1.696187E-01 2.543406E-01
 3.580067E-01 4.797722E-01 6.174710E-01 7.699190E-01 9.360430E-01
 1.115429E+00 1.307779E+00 1.513356E+00 1.731938E+00 1.959592E+00
 3.173997E-01 3.166015E-01 3.093430E-01 3.011914E-01 2.948125E-01
 2.916070E-01 2.909354E-01 2.915309E-01 2.922437E-01 2.924581E-01
 2.919230E-01 2.906964E-01 2.896190E-01 2.927642E-01 2.927642E-01
 3.173997E-01 3.166015E-01 3.093430E-01 3.011914E-01 2.948125E-01
 2.916070E-01 2.909354E-01 2.915309E-01 2.922437E-01 2.924581E-01
 2.919230E-01 2.906964E-01 2.896190E-01 2.927642E-01 2.927642E-01
 0.000000E+00 0.000000E+00 0.000000E+00 0.000000E+00 0.000000E+00
 0.000000E+00 0.000000E+00 0.000000E+00 0.000000E+00 0.000000E+00
 0.000000E+00 0.000000E+00 0.000000E+00 0.000000E+00 0.000000E+00
 0.000000E+00 1.435583E-02 2.798212E-02 4.159065E-02 5.789655E-02
 7.794116E-02 1.021475E-01 1.299130E-01 1.608201E-01 1.944458E-01
 2.306701E-01 2.694103E-01 3.107884E-01 3.546170E-01 4.000000E-01
 0.000000E+00 7.177915E-02 1.399106E-01 2.079532E-01 2.894828E-01
 3.897058E-01 5.107374E-01 6.495650E-01 8.041004E-01 9.722291E-01
 1.153350E+00 1.347052E+00 1.553942E+00 1.773085E+00 2.000000E+00
 0.000000E+00 7.032891E-02 1.370838E-01 2.037517E-01 2.836340E-01
 3.818322E-01 5.004184E-01 6.364411E-01 7.878543E-01 9.525861E-01
 1.130048E+00 1.319836E+00 1.522546E+00 1.737261E+00 1.959592E+00
 3.912043E-01 3.971033E-01 3.916291E-01 3.830088E-01 3.759626E-01
 3.732588E-01 3.750471E-01 3.795955E-01 3.847023E-01 3.887865E-01
 3.909302E-01 3.904059E-01 3.866068E-01 3.798410E-01 3.798410E-01
 3.912043E-01 3.971033E-01 3.916291E-01 3.830088E-01 3.759626E-01
 3.732588E-01 3.750471E-01 3.795955E-01 3.847023E-01 3.887865E-01
 3.909302E-01 3.904059E-01 3.866068E-01 3.798410E-01 3.798410E-01
 0.000000E+00 0.000000E+00 0.000000E+00 0.000000E+00 0.000000E+00
 0.000000E+00 0.000000E+00 0.000000E+00 0.000000E+00 0.000000E+00
 0.000000E+00 0.000000E+00 0.000000E+00 0.000000E+00 0.000000E+00
 0.000000E+00 1.760804E-02 3.317536E-02 4.716271E-02 6.279839E-02
 8.181661E-02 1.052474E-01 1.325488E-01 1.631987E-01 1.965993E-01
 2.325808E-01 2.710219E-01 3.120905E-01 3.554677E-01 4.000000E-01
 0.000000E+00 8.804022E-02 1.658768E-01 2.358135E-01 3.139919E-01
 4.090831E-01 5.262371E-01 6.627439E-01 8.159937E-01 9.829963E-01
 1.162904E+00 1.355109E+00 1.560453E+00 1.777339E+00 2.000000E+00
 0.000000E+00 8.626144E-02 1.625254E-01 2.310491E-01 3.076480E-01
 4.008179E-01 5.156050E-01 6.493537E-01 7.995072E-01 9.631357E-01
 1.139408E+00 1.327731E+00 1.528925E+00 1.741429E+00 1.959592E+00
 4.475618E-01 4.562894E-01 4.543105E-01 4.471195E-01 4.397250E-01
 4.357375E-01 4.367571E-01 4.415614E-01 4.474685E-01 4.521501E-01
 4.542027E-01 4.529307E-01 4.493164E-01 4.495290E-01 4.495290E-01
 4.475618E-01 4.562894E-01 4.543105E-01 4.471195E-01 4.397250E-01
 4.357375E-01 4.367571E-01 4.415614E-01 4.474685E-01 4.521501E-01
 4.542027E-01 4.529307E-01 4.493164E-01 4.495290E-01 4.495290E-01
 0.000000E+00 0.000000E+00 0.000000E+00 0.000000E+00 0.000000E+00
 0.000000E+00 0.000000E+00 0.000000E+00 0.000000E+00 0.000000E+00
 0.000000E+00 0.000000E+00 0.000000E+00 0.000000E+00 0.000000E+00
 0.000000E+00 2.018530E-02 3.747879E-02 5.253115E-02 6.836057E-02
 8.685782E-02 1.095593E-01 1.363087E-01 1.666836E-01 1.999241E-01
 2.357458E-01 2.738568E-01 3.142982E-01 3.565865E-01 4.000000E-01
 0.000000E+00 1.009265E-01 1.873939E-01 2.626558E-01 3.418029E-01
 4.342891E-01 5.477962E-01 6.815435E-01 8.334179E-01 9.996203E-01
 1.178729E+00 1.369284E+00 1.571491E+00 1.782933E+00 2.000000E+00
 0.000000E+00 9.888739E-02 1.836078E-01 2.573490E-01 3.348970E-01
 4.255147E-01 5.367285E-01 6.677735E-01 8.165794E-01 9.794238E-01
 1.154914E+00 1.341619E+00 1.539740E+00 1.746910E+00 1.959592E+00
 4.849411E-01 5.019820E-01 5.137257E-01 5.167862E-01 5.169253E-01
 5.182691E-01 5.236792E-01 5.332907E-01 5.448260E-01 5.552311E-01
 5.621087E-01 5.636050E-01 5.587574E-01 5.483049E-01 5.483049E-01
 4.849411E-01 5.019820E-01 5.137257E-01 5.167862E-01 5.169253E-01
 5.182691E-01 5.236792E-01 5.332907E-01 5.448260E-01 5.552311E-01
 5.621087E-01 5.636050E-01 5.587574E-01 5.483049E-01 5.483049E-01
 0.000000E+00 0.000000E+00 0.000000E+00 0.000000E+00 0.000000E+00
 0.000000E+00 0.000000E+00 0.000000E+00 0.000000E+00 0.000000E+00
 0.000000E+00 0.000000E+00 0.000000E+00 0.000000E+00 0.000000E+00
 0.000000E+00 2.150702E-02 3.953894E-02 5.545455E-02 7.166269E-02
 8.998135E-02 1.122105E-01 1.385106E-01 1.686095E-01 2.016952E-01
 2.374189E-01 2.753747E-01 3.155764E-01 3.574121E-01 4.000000E-01
 0.000000E+00 1.075351E-01 1.976947E-01 2.772727E-01 3.583135E-01
 4.499068E-01 5.610526E-01 6.925529E-01 8.430473E-01 1.008476E+00
 1.187094E+00 1.376874E+00 1.577882E+00 1.787061E+00 2.000000E+00
 0.000000E+00 1.053624E-01 1.937004E-01 2.716707E-01 3.510741E-01
 4.408168E-01 5.497171E-01 6.785604E-01 8.260142E-01 9.881004E-01
 1.163110E+00 1.349055E+00 1.546002E+00 1.750955E+00 1.959592E+00
 5.000000E-01 5.299739E-01 5.537394E-01 5.649913E-01 5.698491E-01
 5.734762E-01 5.798645E-01 5.902661E-01 6.029918E-01 6.147330E-01
 6.226647E-01 6.251278E-01 6.237256E-01 6.263261E-01 6.263261E-01
 5.000000E-01 5.299739E-01 5.537394E-01 5.649913E-01 5.698491E-01
 5.734762E-01 5.798645E-01 5.902661E-01 6.029918E-01 6.147330E-01
 6.226647E-01 6.251278E-01 6.237256E-01 6.263261E-01 6.263261E-01
 0.000000E+00 0.000000E+00 0.000000E+00 0.000000E+00 0.000000E+00
 0.000000E+00 0.000000E+00 0.000000E+00 0.000000E+00 0.000000E+00
 0.000000E+00 0.000000E+00 0.000000E+00 0.000000E+00 0.000000E+00
 5.196152E-03 2.251663E-02 4.059765E-02 5.764234E-02 7.485452E-02
 9.360273E-02 1.157020E-01 1.416310E-01 1.714377E-01 2.043923E-01
 2.400924E-01 2.778946E-01 3.175936E-01 3.584076E-01 4.000000E-01
 2.598076E-02 1.125831E-01 2.029882E-01 2.882117E-01 3.742726E-01
 4.680136E-01 5.785101E-01 7.081549E-01 8.571885E-01 1.021961E+00
 1.200462E+00 1.389473E+00 1.587968E+00 1.792038E+00 2.000000E+00
 2.545584E-02 1.103085E-01 1.988870E-01 2.823886E-01 3.667107E-01
 4.585578E-01 5.668218E-01 6.938472E-01 8.398698E-01 1.001314E+00
 1.176208E+00 1.361400E+00 1.555885E+00 1.755831E+00 1.959592E+00
 5.111000E-01 5.533477E-01 5.922779E-01 6.188905E-01 6.359984E-01
 6.490469E-01 6.629017E-01 6.797728E-01 6.991072E-01 7.178362E-01
 7.326475E-01 7.407578E-01 7.409739E-01 7.337328E-01 7.337328E-01
 5.111000E-01 5.533477E-01 5.922779E-01 6.188905E-01 6.359984E-01
 6.490469E-01 6.629017E-01 6.797728E-01 6.991072E-01 7.178362E-01
 7.326475E-01 7.407578E-01 7.409739E-01 7.337328E-01 7.337328E-01
 0.000000E+00 0.000000E+00 0.000000E+00 0.000000E+00 0.000000E+00
 0.000000E+00 0.000000E+00 0.000000E+00 0.000000E+00 0.000000E+00
 0.000000E+00 0.000000E+00 0.000000E+00 0.000000E+00 0.000000E+00
 6.000000E-03 2.304637E-02 4.088940E-02 5.843985E-02 7.636693E-02
 9.553458E-02 1.176433E-01 1.433487E-01 1.729250E-01 2.057361E-01
 2.413752E-01 2.790797E-01 3.185706E-01 3.590157E-01 4.000000E-01
 3.000000E-02 1.152318E-01 2.044470E-01 2.921992E-01 3.818347E-01
 4.776729E-01 5.882162E-01 7.167435E-01 8.646252E-01 1.028681E+00
 1.206876E+00 1.395398E+00 1.592853E+00 1.795078E+00 2.000000E+00
 2.939388E-02 1.129037E-01 2.003163E-01 2.862956E-01 3.741200E-01
 4.680219E-01 5.763319E-01 7.022623E-01 8.471562E-01 1.007897E+00
 1.182492E+00 1.367206E+00 1.560671E+00 1.758810E+00 1.959592E+00
 5.222000E-01 5.719676E-01 6.179972E-01 6.542825E-01 6.795924E-01
 6.981707E-01 7.154990E-01 7.346271E-01 7.559272E-01 7.767478E-01
 7.938166E-01 8.046947E-01 8.105952E-01 8.180177E-01 8.180177E-01
 5.222000E-01 5.719676E-01 6.179972E-01 6.542825E-01 6.795924E-01
 6.981707E-01 7.154990E-01 7.346271E-01 7.559272E-01 7.767478E-01
 7.938166E-01 8.046947E-01 8.105952E-01 8.180177E-01 8.180177E-01
 0.000000E+00 0.000000E+00 0.000000E+00 0.000000E+00 0.000000E+00
 0.000000E+00 0.000000E+00 0.000000E+00 0.000000E+00 0.000000E+00
 0.000000E+00 0.000000E+00 0.000000E+00 0.000000E+00 0.000000E+00
 7.252198E-03 2.340370E-02 4.079595E-02 5.862954E-02 7.738098E-02
 9.732050E-02 1.197831E-01 1.454430E-01 1.748169E-01 2.074598E-01
 2.430226E-01 2.806032E-01 3.198003E-01 3.596330E-01 4.000000E-01
 3.626099E-02 1.170185E-01 2.039797E-01 2.931477E-01 3.869049E-01
 4.866025E-01 5.989153E-01 7.272152E-01 8.740844E-01 1.037299E+00
 1.215113E+00 1.403016E+00 1.599001E+00 1.798165E+00 2.000000E+00
 3.552837E-02 1.146543E-01 1.998585E-01 2.872249E-01 3.790878E-01
 4.767711E-01 5.868147E-01 7.125224E-01 8.564243E-01 1.016341E+00
 1.190562E+00 1.374669E+00 1.566695E+00 1.761835E+00 1.959592E+00
 5.459202E-01 5.940108E-01 6.455706E-01 6.937420E-01 7.326680E-01
 7.629095E-01 7.894453E-01 8.158439E-01 8.436201E-01 8.710290E-01
 8.951276E-01 9.127771E-01 9.223946E-01 9.235150E-01 9.235150E-01
 5.459202E-01 5.940108E-01 6.455706E-01 6.937420E-01 7.326680E-01
 7.629095E-01 7.894453E-01 8.158439E-01 8.436201E-01 8.710290E-01
 8.951276E-01 9.127771E-01 9.223946E-01 9.235150E-01 9.235150E-01
 0.000000E+00 0.000000E+00 0.000000E+00 0.000000E+00 0.000000E+00
 0.000000E+00 0.000000E+00 0.000000E+00 0.000000E+00 0.000000E+00
 0.000000E+00 0.000000E+00 0.000000E+00 0.000000E+00 0.000000E+00
 9.541750E-03 2.398987E-02 4.052863E-02 5.835883E-02 7.761800E-02
 9.817094E-02 1.210086E-01 1.467180E-01 1.759586E-01 2.084403E-01
 2.438864E-01 2.813375E-01 3.203395E-01 3.599363E-01 4.000000E-01
 4.770875E-02 1.199493E-01 2.026432E-01 2.917942E-01 3.880900E-01
 4.908547E-01 6.050428E-01 7.335897E-01 8.797932E-01 1.042201E+00
 1.219432E+00 1.406688E+00 1.601698E+00 1.799682E+00 2.000000E+00
 4.674483E-02 1.175259E-01 1.985489E-01 2.858987E-01 3.802490E-01
 4.809374E-01 5.928184E-01 7.187682E-01 8.620178E-01 1.021145E+00
 1.194794E+00 1.378267E+00 1.569337E+00 1.763321E+00 1.959592E+00
 5.892909E-01 6.238106E-01 6.723991E-01 7.253973E-01 7.729474E-01
 8.113884E-01 8.440736E-01 8.745755E-01 9.052730E-01 9.352837E-01
 9.622194E-01 9.832627E-01 9.980791E-01 1.009725E+00 1.009725E+00
 5.892909E-01 6.238106E-01 6.723991E-01 7.253973E-01 7.729474E-01
 8.113884E-01 8.440736E-01 8.745755E-01 9.052730E-01 9.352837E-01
 9.622194E-01 9.832627E-01 9.980791E-01 1.009725E+00 1.009725E+00
 0.000000E+00 0.000000E+00 0.000000E+00 0.000000E+00 0.000000E+00
 0.000000E+00 0.000000E+00 0.000000E+00 0.000000E+00 0.000000E+00
 0.000000E+00 0.000000E+00 0.000000E+00 0.000000E+00 0.000000E+00
 1.250661E-02 2.518212E-02 4.026750E-02 5.770242E-02 7.729442E-02
 9.850550E-02 1.219303E-01 1.478984E-01 1.771059E-01 2.094225E-01
 2.447042E-01 2.819933E-01 3.208423E-01 3.601955E-01 4.000000E-01
 6.253306E-02 1.259106E-01 2.013375E-01 2.885121E-01 3.864721E-01
 4.925275E-01 6.096514E-01 7.394919E-01 8.855295E-01 1.047113E+00
 1.223521E+00 1.409967E+00 1.604211E+00 1.800978E+00 2.000000E+00
 6.126963E-02 1.233667E-01 1.972696E-01 2.826830E-01 3.786638E-01
 4.825764E-01 5.973339E-01 7.245511E-01 8.676381E-01 1.025957E+00
 1.198801E+00 1.381480E+00 1.571800E+00 1.764590E+00 1.959592E+00
 6.454538E-01 6.683793E-01 7.092397E-01 7.631547E-01 8.190047E-01
 8.681748E-01 9.106285E-01 9.487029E-01 9.852780E-01 1.020490E+00
 1.052814E+00 1.079304E+00 1.097883E+00 1.107166E+00 1.107166E+00
 6.454538E-01 6.683793E-01 7.092397E-01 7.631547E-01 8.190047E-01
 8.681748E-01 9.106285E-01 9.487029E-01 9.852780E-01 1.020490E+00
 1.052814E+00 1.079304E+00 1.097883E+00 1.107166E+00 1.107166E+00
 0.000000E+00 0.000000E+00 0.000000E+00 0.000000E+00 0.000000E+00
 0.000000E+00 0.000000E+00 0.000000E+00 0.000000E+00 0.000000E+00
 0.000000E+00 0.000000E+00 0.000000E+00 0.000000E+00 0.000000E+00
 1.601758E-02 2.716692E-02 4.044762E-02 5.697064E-02 7.661384E-02
 9.832918E-02 1.223226E-01 1.486371E-01 1.779072E-01 2.101062E-01
 2.452252E-01 2.823531E-01 3.210599E-01 3.603024E-01 4.000000E-01
 8.008792E-02 1.358346E-01 2.022381E-01 2.848532E-01 3.830692E-01
 4.916459E-01 6.116128E-01 7.431854E-01 8.895359E-01 1.050531E+00
 1.226126E+00 1.411765E+00 1.605299E+00 1.801512E+00 2.000000E+00
 7.846981E-02 1.330902E-01 1.981521E-01 2.790980E-01 3.753296E-01
 4.817126E-01 5.992557E-01 7.281700E-01 8.715636E-01 1.029306E+00
 1.201353E+00 1.383242E+00 1.572866E+00 1.765114E+00 1.959592E+00
 7.119617E-01 7.301639E-01 7.614901E-01 8.088543E-01 8.658963E-01
 9.212685E-01 9.709392E-01 1.014833E+00 1.055466E+00 1.093610E+00
 1.128586E+00 1.157850E+00 1.179691E+00 1.194066E+00 1.194066E+00
 7.119617E-01 7.301639E-01 7.614901E-01 8.088543E-01 8.658963E-01
 9.212685E-01 9.709392E-01 1.014833E+00 1.055466E+00 1.093610E+00
 1.128586E+00 1.157850E+00 1.179691E+00 1.194066E+00 1.194066E+00
 0.000000E+00 0.000000E+00 0.000000E+00 0.000000E+00 0.000000E+00
 0.000000E+00 0.000000E+00 0.000000E+00 0.000000E+00 0.000000E+00
 0.000000E+00 0.000000E+00 0.000000E+00 0.000000E+00 0.000000E+00
 2.000000E-02 2.966053E-02 4.136914E-02 5.655787E-02 7.576990E-02
 9.775473E-02 1.222827E-01 1.490549E-01 1.785231E-01 2.106787E-01
 2.456458E-01 2.826134E-01 3.212284E-01 3.603884E-01 4.000000E-01
 1.000000E-01 1.483026E-01 2.068457E-01 2.827893E-01 3.788495E-01
 4.887736E-01 6.114133E-01 7.452747E-01 8.926155E-01 1.053393E+00
 1.228229E+00 1.413067E+00 1.606142E+00 1.801942E+00 2.000000E+00
 9.797959E-02 1.453063E-01 2.026666E-01 2.770758E-01 3.711952E-01
 4.788984E-01 5.990602E-01 7.302170E-01 8.745810E-01 1.032111E+00
 1.203414E+00 1.384517E+00 1.573691E+00 1.765535E+00 1.959592E+00
 7.874000E-01 8.096173E-01 8.346025E-01 8.716065E-01 9.234291E-01
 9.810897E-01 1.037137E+00 1.087793E+00 1.133896E+00 1.176184E+00
 1.214714E+00 1.247293E+00 1.271721E+00 1.286147E+00 1.286147E+00
 7.874000E-01 8.096173E-01 8.346025E-01 8.716065E-01 9.234291E-01
 9.810897E-01 1.037137E+00 1.087793E+00 1.133896E+00 1.176184E+00
 1.214714E+00 1.247293E+00 1.271721E+00 1.286147E+00 1.286147E+00
 0.000000E+00 0.000000E+00 0.000000E+00 0.000000E+00 0.000000E+00
 0.000000E+00 0.000000E+00 0.000000E+00 0.000000E+00 0.000000E+00
 0.000000E+00 0.000000E+00 0.000000E+00 0.000000E+00 0.000000E+00
 2.250000E-02 3.216337E-02 4.321591E-02 5.718091E-02 7.538690E-02
 9.714922E-02 1.219753E-01 1.491740E-01 1.789156E-01 2.111129E-01
 2.459756E-01 2.828027E-01 3.213245E-01 3.604291E-01 4.000000E-01
 1.125000E-01 1.608168E-01 2.160796E-01 2.859045E-01 3.769345E-01
 4.857461E-01 6.098763E-01 7.458698E-01 8.945780E-01 1.055565E+00
 1.229878E+00 1.414014E+00 1.606622E+00 1.802146E+00 2.000000E+00
 1.102270E-01 1.575677E-01 2.117139E-01 2.801281E-01 3.693188E-01
 4.759320E-01 5.975543E-01 7.308002E-01 8.765038E-01 1.034238E+00
 1.205030E+00 1.385445E+00 1.574162E+00 1.765735E+00 1.959592E+00
 8.999000E-01 9.137963E-01 9.312906E-01 9.571315E-01 9.976413E-01
 1.050280E+00 1.107664E+00 1.162509E+00 1.212786E+00 1.258164E+00
 1.298925E+00 1.333308E+00 1.359404E+00 1.375741E+00 1.375741E+00
 8.999000E-01 9.137963E-01 9.312906E-01 9.571315E-01 9.976413E-01
 1.050280E+00 1.107664E+00 1.162509E+00 1.212786E+00 1.258164E+00
 1.298925E+00 1.333308E+00 1.359404E+00 1.375741E+00 1.375741E+00
 0.000000E+00 0.000000E+00 0.000000E+00 0.000000E+00 0.000000E+00
 0.000000E+00 0.000000E+00 0.000000E+00 0.000000E+00 0.000000E+00
 0.000000E+00 0.000000E+00 0.000000E+00 0.000000E+00 0.000000E+00
 2.500000E-02 3.533697E-02 4.642280E-02 5.946450E-02 7.627343E-02
 9.710927E-02 1.217238E-01 1.491356E-01 1.791365E-01 2.114405E-01
 2.462557E-01 2.829700E-01 3.214161E-01 3.604692E-01 4.000000E-01
 1.250000E-01 1.766848E-01 2.321140E-01 2.973225E-01 3.813671E-01
 4.855464E-01 6.086192E-01 7.456778E-01 8.956827E-01 1.057202E+00
 1.231278E+00 1.414850E+00 1.607081E+00 1.802346E+00 2.000000E+00
 1.224745E-01 1.731151E-01 2.274243E-01 2.913154E-01 3.736620E-01
 4.757363E-01 5.963226E-01 7.306120E-01 8.775862E-01 1.035843E+00
 1.206401E+00 1.386264E+00 1.574611E+00 1.765931E+00 1.959592E+00
 1.012400E+00 1.027635E+00 1.042746E+00 1.061484E+00 1.090490E+00
 1.133126E+00 1.186478E+00 1.242444E+00 1.295876E+00 1.344294E+00
 1.387400E+00 1.423583E+00 1.451122E+00 1.468280E+00 1.468280E+00
 1.012400E+00 1.027635E+00 1.042746E+00 1.061484E+00 1.090490E+00
 1.133126E+00 1.186478E+00 1.242444E+00 1.295876E+00 1.344294E+00
 1.387400E+00 1.423583E+00 1.451122E+00 1.468280E+00 1.468280E+00
 0.000000E+00 0.000000E+00 0.000000E+00 0.000000E+00 0.000000E+00
 0.000000E+00 0.000000E+00 0.000000E+00 0.000000E+00 0.000000E+00
 0.000000E+00 0.000000E+00 0.000000E+00 0.000000E+00 0.000000E+00
 2.750000E-02 3.873882E-02 5.040730E-02 6.317748E-02 7.884734E-02
 9.832525E-02 1.220718E-01 1.492490E-01 1.793264E-01 2.117182E-01
 2.465205E-01 2.831467E-01 3.215161E-01 3.605104E-01 4.000000E-01
 1.375000E-01 1.936941E-01 2.520365E-01 3.158874E-01 3.942367E-01
 4.916263E-01 6.103588E-01 7.462448E-01 8.966318E-01 1.058591E+00
 1.232602E+00 1.415734E+00 1.607580E+00 1.802552E+00 2.000000E+00
 1.347219E-01 1.897807E-01 2.469443E-01 3.095052E-01 3.862715E-01
 4.816934E-01 5.980271E-01 7.311676E-01 8.785161E-01 1.037203E+00
 1.207699E+00 1.387130E+00 1.575101E+00 1.766133E+00 1.959592E+00
 1.124900E+00 1.143716E+00 1.160720E+00 1.177860E+00 1.200123E+00
 1.232534E+00 1.277447E+00 1.329993E+00 1.383756E+00 1.433800E+00
 1.478417E+00 1.515680E+00 1.544069E+00 1.562071E+00 1.562071E+00
 1.124900E+00 1.143716E+00 1.160720E+00 1.177860E+00 1.200123E+00
 1.232534E+00 1.277447E+00 1.329993E+00 1.383756E+00 1.433800E+00
 1.478417E+00 1.515680E+00 1.544069E+00 1.562071E+00 1.562071E+00
 0.000000E+00 0.000000E+00 0.000000E+00 0.000000E+00 0.000000E+00
 0.000000E+00 0.000000E+00 0.000000E+00 0.000000E+00 0.000000E+00
 0.000000E+00 0.000000E+00 0.000000E+00 0.000000E+00 0.000000E+00
 3.000000E-02 4.209230E-02 5.449359E-02 6.752408E-02 8.269010E-02
 1.010010E-01 1.235008E-01 1.499089E-01 1.797063E-01 2.120415E-01
 2.468066E-01 2.833497E-01 3.216385E-01 3.605627E-01 4.000000E-01
 1.500000E-01 2.104615E-01 2.724680E-01 3.376204E-01 4.134505E-01
 5.050050E-01 6.175038E-01 7.495445E-01 8.985315E-01 1.060208E+00
 1.234033E+00 1.416748E+00 1.608192E+00 1.802813E+00 2.000000E+00
 1.469694E-01 2.062093E-01 2.669630E-01 3.307991E-01 4.050971E-01
 4.948018E-01 6.050276E-01 7.344006E-01 8.803775E-01 1.038787E+00
 1.209100E+00 1.388124E+00 1.575700E+00 1.766389E+00 1.959592E+00
 1.237400E+00 1.259617E+00 1.279612E+00 1.298050E+00 1.318192E+00
 1.344003E+00 1.380042E+00 1.425962E+00 1.477029E+00 1.526980E+00
 1.572343E+00 1.610322E+00 1.639332E+00 1.657972E+00 1.657972E+00
 1.237400E+00 1.259617E+00 1.279612E+00 1.298050E+00 1.318192E+00
 1.344003E+00 1.380042E+00 1.425962E+00 1.477029E+00 1.526980E+00
 1.572343E+00 1.610322E+00 1.639332E+00 1.657972E+00 1.657972E+00
 0.000000E+00 0.000000E+00 0.000000E+00 0.000000E+00 0.000000E+00
 0.000000E+00 0.000000E+00 0.000000E+00 0.000000E+00 0.000000E+00
 0.000000E+00 0.000000E+00 0.000000E+00 0.000000E+00 0.000000E+00
 3.250000E-02 4.526599E-02 5.836686E-02 7.187514E-02 8.706060E-02
 1.047211E-01 1.260915E-01 1.514201E-01 1.805429E-01 2.125662E-01
 2.471871E-01 2.836122E-01 3.218021E-01 3.606350E-01 4.000000E-01
 1.625000E-01 2.263299E-01 2.918343E-01 3.593757E-01 4.353030E-01
 5.236056E-01 6.304577E-01 7.571006E-01 9.027144E-01 1.062831E+00
 1.235935E+00 1.418061E+00 1.609011E+00 1.803175E+00 2.000000E+00
 1.592168E-01 2.217571E-01 2.859381E-01 3.521148E-01 4.265081E-01
 5.130266E-01 6.177198E-01 7.418040E-01 8.844759E-01 1.041358E+00
 1.210964E+00 1.389410E+00 1.576502E+00 1.766744E+00 1.959592E+00
 1.349900E+00 1.374263E+00 1.396584E+00 1.416833E+00 1.437328E+00
 1.460492E+00 1.490490E+00 1.529482E+00 1.575777E+00 1.623744E+00
 1.668750E+00 1.706899E+00 1.736243E+00 1.755410E+00 1.755410E+00
 1.349900E+00 1.374263E+00 1.396584E+00 1.416833E+00 1.437328E+00
 1.460492E+00 1.490490E+00 1.529482E+00 1.575777E+00 1.623744E+00
 1.668750E+00 1.706899E+00 1.736243E+00 1.755410E+00 1.755410E+00
 0.000000E+00 0.000000E+00 0.000000E+00 0.000000E+00 0.000000E+00
 0.000000E+00 0.000000E+00 0.000000E+00 0.000000E+00 0.000000E+00
 0.000000E+00 0.000000E+00 0.000000E+00 0.000000E+00 0.000000E+00
 3.500000E-02 4.846754E-02 6.223768E-02 7.625449E-02 9.163659E-02
 1.090129E-01 1.295676E-01 1.538133E-01 1.820014E-01 2.134352E-01
 2.477395E-01 2.839642E-01 3.220146E-01 3.607292E-01 4.000000E-01
 1.750000E-01 2.423377E-01 3.111884E-01 3.812724E-01 4.581830E-01
 5.450644E-01 6.478379E-01 7.690665E-01 9.100072E-01 1.067176E+00
 1.238698E+00 1.419821E+00 1.610073E+00 1.803646E+00 2.000000E+00
 1.714643E-01 2.374415E-01 3.049011E-01 3.735692E-01 4.489258E-01
 5.340518E-01 6.347489E-01 7.535281E-01 8.916213E-01 1.045615E+00
 1.213671E+00 1.391135E+00 1.577543E+00 1.767205E+00 1.959592E+00
 1.462400E+00 1.489069E+00 1.512930E+00 1.534493E+00 1.555959E+00
 1.578819E+00 1.605961E+00 1.639763E+00 1.680739E+00 1.725175E+00
 1.768478E+00 1.805923E+00 1.835031E+00 1.854287E+00 1.854287E+00
 1.462400E+00 1.489069E+00 1.512930E+00 1.534493E+00 1.555959E+00
 1.578819E+00 1.605961E+00 1.639763E+00 1.680739E+00 1.725175E+00
 1.768478E+00 1.805923E+00 1.835031E+00 1.854287E+00 1.854287E+00
 0.000000E+00 0.000000E+00 0.000000E+00 0.000000E+00 0.000000E+00
 0.000000E+00 0.000000E+00 0.000000E+00 0.000000E+00 0.000000E+00
 0.000000E+00 0.000000E+00 0.000000E+00 0.000000E+00 0.000000E+00
 3.750000E-02 5.184412E-02 6.638847E-02 8.076447E-02 9.621712E-02
 1.133623E-01 1.333529E-01 1.567340E-01 1.839946E-01 2.146901E-01
 2.485204E-01 2.844416E-01 3.222954E-01 3.608540E-01 4.000000E-01
 1.875000E-01 2.592206E-01 3.319423E-01 4.038224E-01 4.810856E-01
 5.668113E-01 6.667646E-01 7.836700E-01 9.199731E-01 1.073450E+00
 1.242602E+00 1.422208E+00 1.611477E+00 1.804270E+00 2.000000E+00
 1.837117E-01 2.539833E-01 3.252357E-01 3.956635E-01 4.713657E-01
 5.553594E-01 6.532932E-01 7.678366E-01 9.013858E-01 1.051762E+00
 1.217496E+00 1.393473E+00 1.578918E+00 1.767816E+00 1.959592E+00
 1.574900E+00 1.601395E+00 1.624714E+00 1.646114E+00 1.667994E+00
 1.691315E+00 1.717949E+00 1.749381E+00 1.786696E+00 1.827810E+00
 1.869040E+00 1.905502E+00 1.934331E+00 1.953832E+00 1.953832E+00
 1.574900E+00 1.601395E+00 1.624714E+00 1.646114E+00 1.667994E+00
 1.691315E+00 1.717949E+00 1.749381E+00 1.786696E+00 1.827810E+00
 1.869040E+00 1.905502E+00 1.934331E+00 1.953832E+00 1.953832E+00
 0.000000E+00 0.000000E+00 0.000000E+00 0.000000E+00 0.000000E+00
 0.000000E+00 0.000000E+00 0.000000E+00 0.000000E+00 0.000000E+00
 0.000000E+00 0.000000E+00 0.000000E+00 0.000000E+00 0.000000E+00
 4.000000E-02 5.598798E-02 7.119980E-02 8.569779E-02 1.009807E-01
 1.177939E-01 1.372851E-01 1.599654E-01 1.863951E-01 2.163104E-01
 2.495529E-01 2.850650E-01 3.226516E-01 3.610089E-01 4.000000E-01
 2.000000E-01 2.799399E-01 3.559990E-01 4.284889E-01 5.049035E-01
 5.889697E-01 6.864257E-01 7.998269E-01 9.319754E-01 1.081552E+00
 1.247765E+00 1.425325E+00 1.613258E+00 1.805045E+00 2.000000E+00
 1.959592E-01 2.742840E-01 3.488063E-01 4.198317E-01 4.947024E-01
 5.770701E-01 6.725571E-01 7.836671E-01 9.131456E-01 1.059700E+00
 1.222555E+00 1.396528E+00 1.580664E+00 1.768575E+00 1.959592E+00
 1.687400E+00 1.706798E+00 1.730980E+00 1.754265E+00 1.777837E+00
 1.802547E+00 1.829934E+00 1.860749E+00 1.895844E+00 1.934003E+00
 1.972667E+00 2.007380E+00 2.035182E+00 2.054196E+00 2.054196E+00
 1.687400E+00 1.706798E+00 1.730980E+00 1.754265E+00 1.777837E+00
 1.802547E+00 1.829934E+00 1.860749E+00 1.895844E+00 1.934003E+00
 1.972667E+00 2.007380E+00 2.035182E+00 2.054196E+00 2.054196E+00
 0.000000E+00 0.000000E+00 0.000000E+00 0.000000E+00 0.000000E+00
 0.000000E+00 0.000000E+00 0.000000E+00 0.000000E+00 0.000000E+00
 0.000000E+00 0.000000E+00 0.000000E+00 0.000000E+00 0.000000E+00
 4.500001E-02 6.057676E-02 7.568941E-02 9.015319E-02 1.052961E-01
 1.218171E-01 1.408886E-01 1.630308E-01 1.888192E-01 2.180686E-01
 2.507367E-01 2.858006E-01 3.230737E-01 3.611930E-01 4.000000E-01
 2.250000E-01 3.028838E-01 3.784471E-01 4.507660E-01 5.264804E-01
 6.090855E-01 7.044427E-01 8.151540E-01 9.440958E-01 1.090343E+00
 1.253683E+00 1.429003E+00 1.615369E+00 1.805965E+00 2.000000E+00
 2.204541E-01 2.967643E-01 3.708009E-01 4.416586E-01 5.158433E-01
 5.967795E-01 6.902101E-01 7.986845E-01 9.250212E-01 1.068314E+00
 1.228354E+00 1.400131E+00 1.582731E+00 1.769477E+00 1.959592E+00
 1.754067E+00 1.788544E+00 1.820892E+00 1.849824E+00 1.877244E+00
 1.904473E+00 1.933620E+00 1.965390E+00 2.000330E+00 2.037350E+00
 2.074587E+00 2.108177E+00 2.135396E+00 2.154398E+00 2.154398E+00
 1.754067E+00 1.788544E+00 1.820892E+00 1.849824E+00 1.877244E+00
 1.904473E+00 1.933620E+00 1.965390E+00 2.000330E+00 2.037350E+00
 2.074587E+00 2.108177E+00 2.135396E+00 2.154398E+00 2.154398E+00
 0.000000E+00 0.000000E+00 0.000000E+00 0.000000E+00 0.000000E+00
 0.000000E+00 0.000000E+00 0.000000E+00 0.000000E+00 0.000000E+00
 0.000000E+00 0.000000E+00 0.000000E+00 0.000000E+00 0.000000E+00
 5.000000E-02 6.421923E-02 7.883590E-02 9.345174E-02 1.088096E-01
 1.253377E-01 1.441713E-01 1.659054E-01 1.911788E-01 2.198654E-01
 2.520028E-01 2.866121E-01 3.235434E-01 3.613957E-01 4.000000E-01
 2.500000E-01 3.210961E-01 3.941795E-01 4.672587E-01 5.440478E-01
 6.266887E-01 7.208563E-01 8.295271E-01 9.558941E-01 1.099327E+00
 1.260014E+00 1.433060E+00 1.617717E+00 1.806978E+00 2.000000E+00
 2.449490E-01 3.146087E-01 3.862155E-01 4.578182E-01 5.330558E-01
 6.140270E-01 7.062920E-01 8.127673E-01 9.365811E-01 1.077116E+00
 1.234557E+00 1.404107E+00 1.585032E+00 1.770470E+00 1.959592E+00
 1.820733E+00 1.858623E+00 1.898776E+00 1.936605E+00 1.971419E+00
 2.003702E+00 2.036032E+00 2.069632E+00 2.105254E+00 2.141891E+00
 2.178067E+00 2.210429E+00 2.236621E+00 2.254904E+00 2.254904E+00
 1.820733E+00 1.858623E+00 1.898776E+00 1.936605E+00 1.971419E+00
 2.003702E+00 2.036032E+00 2.069632E+00 2.105254E+00 2.141891E+00
 2.178067E+00 2.210429E+00 2.236621E+00 2.254904E+00 2.254904E+00
 0.000000E+00 0.000000E+00 0.000000E+00 0.000000E+00 0.000000E+00
 0.000000E+00 0.000000E+00 0.000000E+00 0.000000E+00 0.000000E+00
 0.000000E+00 0.000000E+00 0.000000E+00 0.000000E+00 0.000000E+00
 5.500000E-02 6.735548E-02 8.085150E-02 9.526758E-02 1.108972E-01
 1.277063E-01 1.466025E-01 1.681713E-01 1.931290E-01 2.214243E-01
 2.531572E-01 2.873851E-01 3.240023E-01 3.615960E-01 4.000000E-01
 2.750000E-01 3.367774E-01 4.042575E-01 4.763379E-01 5.544860E-01
 6.385313E-01 7.330124E-01 8.408564E-01 9.656449E-01 1.107121E+00
 1.265786E+00 1.436925E+00 1.620012E+00 1.807980E+00 2.000000E+00
 2.694438E-01 3.299731E-01 3.960898E-01 4.667139E-01 5.432830E-01
 6.256304E-01 7.182026E-01 8.238676E-01 9.461349E-01 1.084753E+00
 1.240212E+00 1.407893E+00 1.587281E+00 1.771451E+00 1.959592E+00
 1.887400E+00 1.921565E+00 1.963522E+00 2.007987E+00 2.051138E+00
 2.090472E+00 2.127944E+00 2.165052E+00 2.203015E+00 2.241015E+00
 2.277776E+00 2.310233E+00 2.336386E+00 2.354729E+00 2.354729E+00
 1.887400E+00 1.921565E+00 1.963522E+00 2.007987E+00 2.051138E+00
 2.090472E+00 2.127944E+00 2.165052E+00 2.203015E+00 2.241015E+00
 2.277776E+00 2.310233E+00 2.336386E+00 2.354729E+00 2.354729E+00
 0.000000E+00 0.000000E+00 0.000000E+00 0.000000E+00 0.000000E+00
 0.000000E+00 0.000000E+00 0.000000E+00 0.000000E+00 0.000000E+00
 0.000000E+00 0.000000E+00 0.000000E+00 0.000000E+00 0.000000E+00
 6.000000E-02 7.049090E-02 8.242701E-02 9.617754E-02 1.118173E-01
 1.289671E-01 1.481511E-01 1.697960E-01 1.946261E-01 2.226757E-01
 2.541168E-01 2.880474E-01 3.244023E-01 3.617685E-01 4.000000E-01
 3.000000E-01 3.524545E-01 4.121350E-01 4.808877E-01 5.590863E-01
 6.448355E-01 7.407556E-01 8.489802E-01 9.731305E-01 1.113378E+00
 1.270584E+00 1.440237E+00 1.622011E+00 1.808842E+00 2.000000E+00
 2.939388E-01 3.453335E-01 4.038082E-01 4.711718E-01 5.477904E-01
 6.318071E-01 7.257892E-01 8.318273E-01 9.534692E-01 1.090884E+00
 1.244913E+00 1.411138E+00 1.589240E+00 1.772296E+00 1.959592E+00
 1.954067E+00 1.984671E+00 2.024690E+00 2.072842E+00 2.123808E+00
 2.171765E+00 2.216340E+00 2.258464E+00 2.299746E+00 2.339811E+00
 2.377701E+00 2.410553E+00 2.436616E+00 2.454551E+00 2.454551E+00
 1.954067E+00 1.984671E+00 2.024690E+00 2.072842E+00 2.123808E+00
 2.171765E+00 2.216340E+00 2.258464E+00 2.299746E+00 2.339811E+00
 2.377701E+00 2.410553E+00 2.436616E+00 2.454551E+00 2.454551E+00
 0.000000E+00 0.000000E+00 0.000000E+00 0.000000E+00 0.000000E+00
 0.000000E+00 0.000000E+00 0.000000E+00 0.000000E+00 0.000000E+00
 0.000000E+00 0.000000E+00 0.000000E+00 0.000000E+00 0.000000E+00
 6.500001E-02 7.358595E-02 8.382620E-02 9.652501E-02 1.118276E-01
 1.291308E-01 1.486381E-01 1.705300E-01 1.954321E-01 2.234154E-01
 2.547145E-01 2.884759E-01 3.246651E-01 3.618802E-01 4.000000E-01
 3.250000E-01 3.679297E-01 4.191310E-01 4.826251E-01 5.591378E-01
 6.456541E-01 7.431907E-01 8.526498E-01 9.771606E-01 1.117077E+00
 1.273573E+00 1.442380E+00 1.623326E+00 1.809401E+00 2.000000E+00
 3.184337E-01 3.604960E-01 4.106628E-01 4.728740E-01 5.478410E-01
 6.326092E-01 7.281752E-01 8.354228E-01 9.574180E-01 1.094507E+00
 1.247841E+00 1.413238E+00 1.590528E+00 1.772844E+00 1.959592E+00
 2.020733E+00 2.047383E+00 2.083107E+00 2.130281E+00 2.185545E+00
 2.241007E+00 2.293538E+00 2.342353E+00 2.388746E+00 2.432573E+00
 2.473195E+00 2.507898E+00 2.535097E+00 2.553597E+00 2.553597E+00
 2.020733E+00 2.047383E+00 2.083107E+00 2.130281E+00 2.185545E+00
 2.241007E+00 2.293538E+00 2.342353E+00 2.388746E+00 2.432573E+00
 2.473195E+00 2.507898E+00 2.535097E+00 2.553597E+00 2.553597E+00
 0.000000E+00 0.000000E+00 0.000000E+00 0.000000E+00 0.000000E+00
 0.000000E+00 0.000000E+00 0.000000E+00 0.000000E+00 0.000000E+00
 0.000000E+00 0.000000E+00 0.000000E+00 0.000000E+00 0.000000E+00
 7.000000E-02 7.652749E-02 8.505483E-02 9.654783E-02 1.112069E-01
 1.284301E-01 1.481769E-01 1.703857E-01 1.955041E-01 2.235756E-01
 2.548712E-01 2.885941E-01 3.247325E-01 3.618993E-01 4.000000E-01
 3.500000E-01 3.826374E-01 4.252741E-01 4.827392E-01 5.560347E-01
 6.421503E-01 7.408845E-01 8.519284E-01 9.775205E-01 1.117878E+00
 1.274356E+00 1.442971E+00 1.623663E+00 1.809497E+00 2.000000E+00
 3.429286E-01 3.749066E-01 4.166819E-01 4.729858E-01 5.448005E-01
 6.291762E-01 7.259156E-01 8.347159E-01 9.577706E-01 1.095292E+00
 1.248609E+00 1.413817E+00 1.590858E+00 1.772937E+00 1.959592E+00
 2.087400E+00 2.112361E+00 2.145205E+00 2.190101E+00 2.246545E+00
 2.307456E+00 2.367539E+00 2.423712E+00 2.476149E+00 2.524545E+00
 2.568512E+00 2.605486E+00 2.633958E+00 2.652746E+00 2.652746E+00
 2.087400E+00 2.112361E+00 2.145205E+00 2.190101E+00 2.246545E+00
 2.307456E+00 2.367539E+00 2.423712E+00 2.476149E+00 2.524545E+00
 2.568512E+00 2.605486E+00 2.633958E+00 2.652746E+00 2.652746E+00
 0.000000E+00 0.000000E+00 0.000000E+00 0.000000E+00 0.000000E+00
 0.000000E+00 0.000000E+00 0.000000E+00 0.000000E+00 0.000000E+00
 0.000000E+00 0.000000E+00 0.000000E+00 0.000000E+00 0.000000E+00
 7.000000E-02 7.714062E-02 8.549963E-02 9.616829E-02 1.101086E-01
 1.270709E-01 1.469113E-01 1.693938E-01 1.947877E-01 2.230646E-01
 2.544888E-01 2.883144E-01 3.245388E-01 3.617946E-01 4.000000E-01
 3.500000E-01 3.857031E-01 4.274981E-01 4.808415E-01 5.505431E-01
 6.353548E-01 7.345566E-01 8.469691E-01 9.739386E-01 1.115323E+00
 1.272444E+00 1.441572E+00 1.622694E+00 1.808973E+00 2.000000E+00
 3.429286E-01 3.779103E-01 4.188609E-01 4.711265E-01 5.394199E-01
 6.225179E-01 7.197155E-01 8.298569E-01 9.542610E-01 1.092789E+00
 1.246735E+00 1.412446E+00 1.589909E+00 1.772424E+00 1.959592E+00
 2.139825E+00 2.175435E+00 2.210006E+00 2.252098E+00 2.306446E+00
 2.369264E+00 2.434836E+00 2.498021E+00 2.557254E+00 2.611434E+00
 2.660060E+00 2.700584E+00 2.731493E+00 2.751566E+00 2.751566E+00
 2.139825E+00 2.175435E+00 2.210006E+00 2.252098E+00 2.306446E+00
 2.369264E+00 2.434836E+00 2.498021E+00 2.557254E+00 2.611434E+00
 2.660060E+00 2.700584E+00 2.731493E+00 2.751566E+00 2.751566E+00
 0.000000E+00 0.000000E+00 0.000000E+00 0.000000E+00 0.000000E+00
 0.000000E+00 0.000000E+00 0.000000E+00 0.000000E+00 0.000000E+00
 0.000000E+00 0.000000E+00 0.000000E+00 0.000000E+00 0.000000E+00
 7.000000E-02 7.682358E-02 8.475125E-02 9.494349E-02 1.083361E-01
 1.249745E-01 1.448076E-01 1.675179E-01 1.932207E-01 2.218008E-01
 2.534819E-01 2.875611E-01 3.240291E-01 3.615375E-01 4.000000E-01
 3.500000E-01 3.841179E-01 4.237562E-01 4.747174E-01 5.416807E-01
 6.248726E-01 7.240381E-01 8.375896E-01 9.661036E-01 1.109004E+00
 1.267409E+00 1.437806E+00 1.620146E+00 1.807688E+00 2.000000E+00
 3.429286E-01 3.763571E-01 4.151946E-01 4.651262E-01 5.307365E-01
 6.122476E-01 7.094095E-01 8.206668E-01 9.465843E-01 1.086598E+00
 1.241803E+00 1.408756E+00 1.587412E+00 1.771165E+00 1.959592E+00
 2.235679E+00 2.259814E+00 2.289045E+00 2.326691E+00 2.376469E+00
 2.437375E+00 2.505072E+00 2.573337E+00 2.638681E+00 2.698663E+00
 2.752201E+00 2.796545E+00 2.830004E+00 2.851180E+00 2.851180E+00
 2.235679E+00 2.259814E+00 2.289045E+00 2.326691E+00 2.376469E+00
 2.437375E+00 2.505072E+00 2.573337E+00 2.638681E+00 2.698663E+00
 2.752201E+00 2.796545E+00 2.830004E+00 2.851180E+00 2.851180E+00
 0.000000E+00 0.000000E+00 0.000000E+00 0.000000E+00 0.000000E+00
 0.000000E+00 0.000000E+00 0.000000E+00 0.000000E+00 0.000000E+00
 0.000000E+00 0.000000E+00 0.000000E+00 0.000000E+00 0.000000E+00
 7.000000E-02 7.643938E-02 8.378890E-02 9.329436E-02 1.060318E-01
 1.222531E-01 1.419814E-01 1.648516E-01 1.908503E-01 2.197846E-01
 2.518197E-01 2.862908E-01 3.231615E-01 3.611056E-01 4.000000E-01
 3.500000E-01 3.821969E-01 4.189445E-01 4.664718E-01 5.301589E-01
 6.112657E-01 7.099070E-01 8.242581E-01 9.542516E-01 1.098923E+00
 1.259099E+00 1.431454E+00 1.615807E+00 1.805528E+00 2.000000E+00
 3.429286E-01 3.744749E-01 4.104801E-01 4.570471E-01 5.194476E-01
 5.989156E-01 6.955640E-01 8.076047E-01 9.349717E-01 1.076720E+00
 1.233660E+00 1.402533E+00 1.583161E+00 1.769049E+00 1.959592E+00
 2.359806E+00 2.375606E+00 2.395197E+00 2.422745E+00 2.462590E+00
 2.515915E+00 2.580463E+00 2.650069E+00 2.719533E+00 2.784668E+00
 2.843250E+00 2.891953E+00 2.928668E+00 2.951711E+00 2.951711E+00
 2.359806E+00 2.375606E+00 2.395197E+00 2.422745E+00 2.462590E+00
 2.515915E+00 2.580463E+00 2.650069E+00 2.719533E+00 2.784668E+00
 2.843250E+00 2.891953E+00 2.928668E+00 2.951711E+00 2.951711E+00
 0.000000E+00 0.000000E+00 0.000000E+00 0.000000E+00 0.000000E+00
 0.000000E+00 0.000000E+00 0.000000E+00 0.000000E+00 0.000000E+00
 0.000000E+00 0.000000E+00 0.000000E+00 0.000000E+00 0.000000E+00
 7.000000E-02 7.636171E-02 8.338442E-02 9.212490E-02 1.038301E-01
 1.191691E-01 1.384472E-01 1.613127E-01 1.875757E-01 2.169196E-01
 2.494192E-01 2.844398E-01 3.218962E-01 3.604820E-01 4.000000E-01
 3.500000E-01 3.818085E-01 4.169221E-01 4.606245E-01 5.191504E-01
 5.958454E-01 6.922357E-01 8.065637E-01 9.378785E-01 1.084598E+00
 1.247096E+00 1.422199E+00 1.609481E+00 1.802410E+00 2.000000E+00
 3.429286E-01 3.740944E-01 4.084986E-01 4.513180E-01 5.086614E-01
 5.838069E-01 6.782497E-01 7.902678E-01 9.189295E-01 1.062685E+00
 1.221900E+00 1.393464E+00 1.576963E+00 1.765994E+00 1.959592E+00
 2.506797E+00 2.519272E+00 2.533190E+00 2.551557E+00 2.578994E+00
 2.619364E+00 2.673981E+00 2.738877E+00 2.808190E+00 2.875921E+00
 2.938147E+00 2.990511E+00 3.030109E+00 3.054739E+00 3.054739E+00
 2.506797E+00 2.519272E+00 2.533190E+00 2.551557E+00 2.578994E+00
 2.619364E+00 2.673981E+00 2.738877E+00 2.808190E+00 2.875921E+00
 2.938147E+00 2.990511E+00 3.030109E+00 3.054739E+00 3.054739E+00
 0.000000E+00 0.000000E+00 0.000000E+00 0.000000E+00 0.000000E+00
 0.000000E+00 0.000000E+00 0.000000E+00 0.000000E+00 0.000000E+00
 0.000000E+00 0.000000E+00 0.000000E+00 0.000000E+00 0.000000E+00
 7.000000E-02 7.662025E-02 8.371121E-02 9.202591E-02 1.027272E-01
 1.167603E-01 1.349443E-01 1.572994E-01 1.835846E-01 2.132922E-01
 2.463193E-01 2.820217E-01 3.202316E-01 3.596643E-01 4.000000E-01
 3.500000E-01 3.831013E-01 4.185561E-01 4.601295E-01 5.136361E-01
 5.838015E-01 6.747215E-01 7.864969E-01 9.179227E-01 1.066461E+00
 1.231597E+00 1.410109E+00 1.601158E+00 1.798321E+00 2.000000E+00
 3.429286E-01 3.753610E-01 4.100995E-01 4.508330E-01 5.032585E-01
 5.720063E-01 6.610894E-01 7.706065E-01 8.993769E-01 1.044914E+00
 1.206713E+00 1.381618E+00 1.568808E+00 1.761988E+00 1.959592E+00
 2.673525E+00 2.684641E+00 2.696083E+00 2.709303E+00 2.727267E+00
 2.753920E+00 2.793546E+00 2.846707E+00 2.909612E+00 2.975555E+00
 3.038742E+00 3.093339E+00 3.135241E+00 3.161480E+00 3.161480E+00
 2.673525E+00 2.684641E+00 2.696083E+00 2.709303E+00 2.727267E+00
 2.753920E+00 2.793546E+00 2.846707E+00 2.909612E+00 2.975555E+00
 3.038742E+00 3.093339E+00 3.135241E+00 3.161480E+00 3.161480E+00
 0.000000E+00 0.000000E+00 0.000000E+00 0.000000E+00 0.000000E+00
 0.000000E+00 0.000000E+00 0.000000E+00 0.000000E+00 0.000000E+00
 0.000000E+00 0.000000E+00 0.000000E+00 0.000000E+00 0.000000E+00
 7.000000E-02 7.695021E-02 8.430620E-02 9.258386E-02 1.027520E-01
 1.156630E-01 1.324095E-01 1.535723E-01 1.793002E-01 2.090930E-01
 2.426046E-01 2.790799E-01 3.181945E-01 3.586673E-01 4.000000E-01
 3.500000E-01 3.847510E-01 4.215310E-01 4.629193E-01 5.137598E-01
 5.783150E-01 6.620474E-01 7.678613E-01 8.965011E-01 1.045465E+00
 1.213023E+00 1.395400E+00 1.590972E+00 1.793337E+00 2.000000E+00
 3.429286E-01 3.769775E-01 4.130143E-01 4.535664E-01 5.033797E-01
 5.666307E-01 6.486713E-01 7.523474E-01 8.783880E-01 1.024343E+00
 1.188515E+00 1.367207E+00 1.558828E+00 1.757104E+00 1.959592E+00
 2.857881E+00 2.868026E+00 2.878296E+00 2.889296E+00 2.902545E+00
 2.920250E+00 2.946249E+00 2.984004E+00 3.034035E+00 3.091985E+00
 3.151462E+00 3.205201E+00 3.247541E+00 3.274426E+00 3.274426E+00
 2.857881E+00 2.868026E+00 2.878296E+00 2.889296E+00 2.902545E+00
 2.920250E+00 2.946249E+00 2.984004E+00 3.034035E+00 3.091985E+00
 3.151462E+00 3.205201E+00 3.247541E+00 3.274426E+00 3.274426E+00
 0.000000E+00 0.000000E+00 0.000000E+00 0.000000E+00 0.000000E+00
 0.000000E+00 0.000000E+00 0.000000E+00 0.000000E+00 0.000000E+00
 0.000000E+00 0.000000E+00 0.000000E+00 0.000000E+00 0.000000E+00
 7.000000E-02 7.715165E-02 8.473275E-02 9.313848E-02 1.032151E-01
 1.155734E-01 1.312386E-01 1.510338E-01 1.756332E-01 2.049606E-01
 2.386554E-01 2.758305E-01 3.159028E-01 3.575458E-01 4.000000E-01
 3.500000E-01 3.857583E-01 4.236637E-01 4.656924E-01 5.160755E-01
 5.778669E-01 6.561931E-01 7.551692E-01 8.781660E-01 1.024803E+00
 1.193277E+00 1.379152E+00 1.579514E+00 1.787729E+00 2.000000E+00
 3.429286E-01 3.779643E-01 4.151040E-01 4.562835E-01 5.056486E-01
 5.661916E-01 6.429353E-01 7.399117E-01 8.604234E-01 1.004098E+00
 1.169168E+00 1.351288E+00 1.547601E+00 1.751609E+00 1.959592E+00
 3.058317E+00 3.067156E+00 3.076236E+00 3.085830E+00 3.096754E+00
 3.109855E+00 3.127239E+00 3.151912E+00 3.186771E+00 3.231445E+00
 3.281667E+00 3.330199E+00 3.370130E+00 3.396193E+00 3.396193E+00
 3.058317E+00 3.067156E+00 3.076236E+00 3.085830E+00 3.096754E+00
 3.109855E+00 3.127239E+00 3.151912E+00 3.186771E+00 3.231445E+00
 3.281667E+00 3.330199E+00 3.370130E+00 3.396193E+00 3.396193E+00
 0.000000E+00 0.000000E+00 0.000000E+00 0.000000E+00 0.000000E+00
 0.000000E+00 0.000000E+00 0.000000E+00 0.000000E+00 0.000000E+00
 0.000000E+00 0.000000E+00 0.000000E+00 0.000000E+00 0.000000E+00
 7.000000E-02 7.717083E-02 8.483095E-02 9.331661E-02 1.034714E-01
 1.157094E-01 1.309086E-01 1.497997E-01 1.732750E-01 2.017388E-01
 2.351567E-01 2.727349E-01 3.136398E-01 3.564342E-01 4.000000E-01
 3.500000E-01 3.858541E-01 4.241548E-01 4.665830E-01 5.173571E-01
 5.785471E-01 6.545432E-01 7.489983E-01 8.663749E-01 1.008694E+00
 1.175783E+00 1.363674E+00 1.568199E+00 1.782171E+00 2.000000E+00
 3.429286E-01 3.780583E-01 4.155851E-01 4.571562E-01 5.069044E-01
 5.668580E-01 6.413187E-01 7.338655E-01 8.488705E-01 9.883144E-01
 1.152028E+00 1.336122E+00 1.536515E+00 1.746164E+00 1.959592E+00
 3.273633E+00 3.280792E+00 3.288343E+00 3.296445E+00 3.305673E+00
 3.316199E+00 3.328873E+00 3.345132E+00 3.367378E+00 3.397372E+00
 3.434163E+00 3.472830E+00 3.506662E+00 3.529638E+00 3.529638E+00
 3.273633E+00 3.280792E+00 3.288343E+00 3.296445E+00 3.305673E+00
 3.316199E+00 3.328873E+00 3.345132E+00 3.367378E+00 3.397372E+00
 3.434163E+00 3.472830E+00 3.506662E+00 3.529638E+00 3.529638E+00
 0.000000E+00 0.000000E+00 0.000000E+00 0.000000E+00 0.000000E+00
 0.000000E+00 0.000000E+00 0.000000E+00 0.000000E+00 0.000000E+00
 0.000000E+00 0.000000E+00 0.000000E+00 0.000000E+00 0.000000E+00
 7.000000E-02 7.704141E-02 8.464304E-02 9.309009E-02 1.033151E-01
 1.156147E-01 1.307941E-01 1.494022E-01 1.722796E-01 2.000153E-01
 2.329058E-01 2.704894E-01 3.118798E-01 3.555601E-01 4.000000E-01
 3.500000E-01 3.852070E-01 4.232152E-01 4.654505E-01 5.165756E-01
 5.780736E-01 6.539706E-01 7.470109E-01 8.613979E-01 1.000077E+00
 1.164529E+00 1.352447E+00 1.559399E+00 1.777800E+00 2.000000E+00
 3.429286E-01 3.774243E-01 4.146645E-01 4.560464E-01 5.061387E-01
 5.663941E-01 6.407577E-01 7.319182E-01 8.439941E-01 9.798710E-01
 1.141001E+00 1.325122E+00 1.527893E+00 1.741881E+00 1.959592E+00
 3.502864E+00 3.508157E+00 3.513890E+00 3.520152E+00 3.527424E+00
 3.535618E+00 3.544966E+00 3.555789E+00 3.569215E+00 3.586848E+00
 3.609525E+00 3.635287E+00 3.659400E+00 3.676513E+00 3.676513E+00
 3.502864E+00 3.508157E+00 3.513890E+00 3.520152E+00 3.527424E+00
 3.535618E+00 3.544966E+00 3.555789E+00 3.569215E+00 3.586848E+00
 3.609525E+00 3.635287E+00 3.659400E+00 3.676513E+00 3.676513E+00
 0.000000E+00 0.000000E+00 0.000000E+00 0.000000E+00 0.000000E+00
 0.000000E+00 0.000000E+00 0.000000E+00 0.000000E+00 0.000000E+00
 0.000000E+00 0.000000E+00 0.000000E+00 0.000000E+00 0.000000E+00
 7.000000E-02 7.683947E-02 8.428853E-02 9.265799E-02 1.029299E-01
 1.153940E-01 1.308070E-01 1.496082E-01 1.724827E-01 1.999702E-01
 2.324617E-01 2.697944E-01 3.111957E-01 3.552139E-01 4.000000E-01
 3.500000E-01 3.841973E-01 4.214426E-01 4.632899E-01 5.146496E-01
 5.769698E-01 6.540350E-01 7.480412E-01 8.624136E-01 9.998511E-01
 1.162309E+00 1.348972E+00 1.555979E+00 1.776069E+00 2.000000E+00
 3.429286E-01 3.764350E-01 4.129277E-01 4.539296E-01 5.042516E-01
 5.653126E-01 6.408208E-01 7.329277E-01 8.449893E-01 9.796500E-01
 1.138825E+00 1.321717E+00 1.524541E+00 1.740185E+00 1.959592E+00
 3.745212E+00 3.748677E+00 3.752269E+00 3.756070E+00 3.760391E+00
 3.765140E+00 3.770361E+00 3.776051E+00 3.782593E+00 3.790771E+00
 3.801353E+00 3.813933E+00 3.826290E+00 3.835399E+00 3.835399E+00
 3.745212E+00 3.748677E+00 3.752269E+00 3.756070E+00 3.760391E+00
 3.765140E+00 3.770361E+00 3.776051E+00 3.782593E+00 3.790771E+00
 3.801353E+00 3.813933E+00 3.826290E+00 3.835399E+00 3.835399E+00
 0.000000E+00 0.000000E+00 0.000000E+00 0.000000E+00 0.000000E+00
 0.000000E+00 0.000000E+00 0.000000E+00 0.000000E+00 0.000000E+00
 0.000000E+00 0.000000E+00 0.000000E+00 0.000000E+00 0.000000E+00
 7.000000E-02 7.683947E-02 8.428853E-02 9.265799E-02 1.029299E-01
 1.153940E-01 1.308070E-01 1.496082E-01 1.724827E-01 1.999702E-01
 2.324617E-01 2.697944E-01 3.111957E-01 3.552139E-01 4.000000E-01
 3.500000E-01 3.841973E-01 4.214426E-01 4.632899E-01 5.146496E-01
 5.769698E-01 6.540350E-01 7.480412E-01 8.624136E-01 9.998511E-01
 1.162309E+00 1.348972E+00 1.555979E+00 1.776069E+00 2.000000E+00
 3.429286E-01 3.764350E-01 4.129277E-01 4.539296E-01 5.042516E-01
 5.653126E-01 6.408208E-01 7.329277E-01 8.449893E-01 9.796500E-01
 1.138825E+00 1.321717E+00 1.524541E+00 1.740185E+00 1.959592E+00
 4.000000E+00 4.000000E+00 4.000000E+00 4.000000E+00 4.000000E+00
 4.000000E+00 4.000000E+00 4.000000E+00 4.000000E+00 4.000000E+00
 4.000000E+00 4.000000E+00 4.000000E+00 4.000000E+00 4.000000E+00
 4.000000E+00 4.000000E+00 4.000000E+00 4.000000E+00 4.000000E+00
 4.000000E+00 4.000000E+00 4.000000E+00 4.000000E+00 4.000000E+00
 4.000000E+00 4.000000E+00 4.000000E+00 4.000000E+00 4.000000E+00
